280.000000 -1352.000000 -56.000000
279.691393 -1350.456967 -54.765573
279.382787 -1348.913933 -53.531146
279.074180 -1347.370900 -52.296720
278.765573 -1345.827866 -51.062293
278.456967 -1344.284833 -49.827866
278.148360 -1342.741799 -48.593439
277.839753 -1341.198766 -47.359012
277.531146 -1339.655732 -46.124586
277.222540 -1338.112699 -44.890159
276.913933 -1336.569665 -43.655732
276.605326 -1335.026632 -42.421305
276.296720 -1333.483598 -41.186878
275.988113 -1331.940565 -39.952452
275.679506 -1330.397531 -38.718025
275.370900 -1328.854498 -37.483598
275.062293 -1327.311464 -36.249171
274.753686 -1325.768431 -35.014744
274.445079 -1324.225397 -33.780318
274.136473 -1322.682364 -32.545891
273.827866 -1321.139330 -31.311464
273.519259 -1319.596297 -30.077037
273.210653 -1318.053263 -28.842610
272.902046 -1316.510230 -27.608184
272.593439 -1314.967196 -26.373757
272.000000 -1312.000000 -24.000000
270.184081 -1312.838116 -24.000000
268.368162 -1313.676233 -24.000000
266.552244 -1314.514349 -24.000000
264.736325 -1315.352465 -24.000000
262.920406 -1316.190582 -24.000000
261.104487 -1317.028698 -24.000000
259.288569 -1317.866814 -24.000000
257.472650 -1318.704931 -24.000000
255.656731 -1319.543047 -24.000000
253.840812 -1320.381164 -24.000000
252.024894 -1321.219280 -24.000000
250.208975 -1322.057396 -24.000000
248.393056 -1322.895513 -24.000000
246.577137 -1323.733629 -24.000000
244.761218 -1324.571745 -24.000000
242.945300 -1325.409862 -24.000000
241.129381 -1326.247978 -24.000000
239.313462 -1327.086094 -24.000000
237.497543 -1327.924211 -24.000000
235.681625 -1328.762327 -24.000000
233.865706 -1329.600443 -24.000000
232.049787 -1330.438560 -24.000000
230.233868 -1331.276676 -24.000000
228.417950 -1332.114793 -24.000000
226.602031 -1332.952909 -24.000000
224.786112 -1333.791025 -24.000000
222.970193 -1334.629142 -24.000000
221.154274 -1335.467258 -24.000000
219.338356 -1336.305374 -24.000000
217.522437 -1337.143491 -24.000000
215.706518 -1337.981607 -24.000000
213.890599 -1338.819723 -24.000000
212.074681 -1339.657840 -24.000000
210.258762 -1340.495956 -24.000000
208.442843 -1341.334072 -24.000000
206.626924 -1342.172189 -24.000000
204.811006 -1343.010305 -24.000000
202.995087 -1343.848421 -24.000000
201.179168 -1344.686538 -24.000000
199.363249 -1345.524654 -24.000000
197.547330 -1346.362771 -24.000000
195.731412 -1347.200887 -24.000000
193.915493 -1348.039003 -24.000000
192.099574 -1348.877120 -24.000000
190.283655 -1349.715236 -24.000000
188.467737 -1350.553352 -24.000000
186.651818 -1351.391469 -24.000000
184.835899 -1352.229585 -24.000000
183.019980 -1353.067701 -24.000000
181.204062 -1353.905818 -24.000000
179.388143 -1354.743934 -24.000000
177.572224 -1355.582050 -24.000000
175.756305 -1356.420167 -24.000000
173.940386 -1357.258283 -24.000000
172.124468 -1358.096400 -24.000000
170.308549 -1358.934516 -24.000000
168.000000 -1360.000000 -24.000000
166.900056 -1361.634202 -24.345697
165.800112 -1363.268405 -24.691393
164.700168 -1364.902607 -25.037090
163.600224 -1366.536809 -25.382787
162.500281 -1368.171012 -25.728483
161.400337 -1369.805214 -26.074180
160.300393 -1371.439416 -26.419877
159.200449 -1373.073619 -26.765573
158.100505 -1374.707821 -27.111270
157.000561 -1376.342023 -27.456966
155.900617 -1377.976226 -27.802663
154.800673 -1379.610428 -28.148360
153.700730 -1381.244630 -28.494056
152.600786 -1382.878833 -28.839753
151.500842 -1384.513035 -29.185450
150.400898 -1386.147237 -29.531146
149.300954 -1387.781440 -29.876843
148.201010 -1389.415642 -30.222540
147.101066 -1391.049844 -30.568236
146.001122 -1392.684047 -30.913933
144.901178 -1394.318249 -31.259630
143.801235 -1395.952451 -31.605326
142.701291 -1397.586654 -31.951023
141.601347 -1399.220856 -32.296720
140.501403 -1400.855058 -32.642416
139.401459 -1402.489261 -32.988113
138.301515 -1404.123463 -33.333810
137.201571 -1405.757665 -33.679506
136.101627 -1407.391868 -34.025203
135.001684 -1409.026070 -34.370899
133.901740 -1410.660273 -34.716596
132.801796 -1412.294475 -35.062293
131.701852 -1413.928677 -35.407989
130.601908 -1415.562880 -35.753686
129.501964 -1417.197082 -36.099383
128.402020 -1418.831284 -36.445079
127.302076 -1420.465487 -36.790776
126.202132 -1422.099689 -37.136473
125.102189 -1423.733891 -37.482169
124.002245 -1425.368094 -37.827866
122.902301 -1427.002296 -38.173563
121.802357 -1428.636498 -38.519259
120.702413 -1430.270701 -38.864956
119.602469 -1431.904903 -39.210653
118.502525 -1433.539105 -39.556349
117.402581 -1435.173308 -39.902046
116.302638 -1436.807510 -40.247742
115.202694 -1438.441712 -40.593439
114.102750 -1440.075915 -40.939136
113.002806 -1441.710117 -41.284832
111.902862 -1443.344319 -41.630529
110.802918 -1444.978522 -41.976226
109.702974 -1446.612724 -42.321922
108.603030 -1448.246926 -42.667619
107.503086 -1449.881129 -43.013316
106.403143 -1451.515331 -43.359012
105.303199 -1453.149533 -43.704709
104.203255 -1454.783736 -44.050406
103.103311 -1456.417938 -44.396102
102.003367 -1458.052140 -44.741799
100.903423 -1459.686343 -45.087496
99.803479 -1461.320545 -45.433192
98.703535 -1462.954747 -45.778889
97.603592 -1464.588950 -46.124586
96.503648 -1466.223152 -46.470282
95.403704 -1467.857354 -46.815979
94.303760 -1469.491557 -47.161675
93.203816 -1471.125759 -47.507372
92.103872 -1472.759961 -47.853069
91.003928 -1474.394164 -48.198765
89.903984 -1476.028366 -48.544462
88.804041 -1477.662568 -48.890159
87.704097 -1479.296771 -49.235855
86.604153 -1480.930973 -49.581552
85.504209 -1482.565175 -49.927249
84.404265 -1484.199378 -50.272945
83.304321 -1485.833580 -50.618642
82.204377 -1487.467782 -50.964339
81.104433 -1489.101985 -51.310035
80.004489 -1490.736187 -51.655732
78.904546 -1492.370389 -52.001429
77.804602 -1494.004592 -52.347125
76.704658 -1495.638794 -52.692822
75.604714 -1497.272996 -53.038518
74.504770 -1498.907199 -53.384215
73.404826 -1500.541401 -53.729912
72.304882 -1502.175603 -54.075608
71.204938 -1503.809806 -54.421305
70.104995 -1505.444008 -54.767002
69.005051 -1507.078210 -55.112698
67.905107 -1508.712413 -55.458395
66.805163 -1510.346615 -55.804092
65.705219 -1511.980818 -56.149788
64.605275 -1513.615020 -56.495485
63.505331 -1515.249222 -56.841182
62.405387 -1516.883425 -57.186878
61.305443 -1518.517627 -57.532575
60.205500 -1520.151829 -57.878272
59.105556 -1521.786032 -58.223968
58.005612 -1523.420234 -58.569665
56.905668 -1525.054436 -58.915362
55.805724 -1526.688639 -59.261058
54.705780 -1528.322841 -59.606755
53.605836 -1529.957043 -59.952451
52.505892 -1531.591246 -60.298148
51.405949 -1533.225448 -60.643845
50.306005 -1534.859650 -60.989541
49.206061 -1536.493853 -61.335238
48.106117 -1538.128055 -61.680935
47.006173 -1539.762257 -62.026631
45.906229 -1541.396460 -62.372328
44.806285 -1543.030662 -62.718025
43.706341 -1544.664864 -63.063721
42.606397 -1546.299067 -63.409418
41.506454 -1547.933269 -63.755115
40.406510 -1549.567471 -64.100811
39.306566 -1551.201674 -64.446508
38.206622 -1552.835876 -64.792205
37.106678 -1554.470078 -65.137901
36.006734 -1556.104281 -65.483598
34.906790 -1557.738483 -65.829294
33.806846 -1559.372685 -66.174991
32.706903 -1561.006888 -66.520688
31.606959 -1562.641090 -66.866384
30.507015 -1564.275292 -67.212081
29.407071 -1565.909495 -67.557778
28.000000 -1568.000000 -68.000000
29.793233 -1568.831011 -67.693838
31.586467 -1569.662021 -67.387676
33.379700 -1570.493032 -67.081515
35.172934 -1571.324043 -66.775353
36.966167 -1572.155053 -66.469191
38.759401 -1572.986064 -66.163029
40.552634 -1573.817074 -65.856867
42.345868 -1574.648085 -65.550706
44.139101 -1575.479096 -65.244544
45.932335 -1576.310106 -64.938382
47.725568 -1577.141117 -64.632220
49.518802 -1577.972128 -64.326058
51.312035 -1578.803138 -64.019896
53.105269 -1579.634149 -63.713735
54.898502 -1580.465159 -63.407573
56.691736 -1581.296170 -63.101411
58.484969 -1582.127181 -62.795249
60.278202 -1582.958191 -62.489087
62.071436 -1583.789202 -62.182926
63.864669 -1584.620213 -61.876764
65.657903 -1585.451223 -61.570602
67.451136 -1586.282234 -61.264440
69.244370 -1587.113245 -60.958278
71.037603 -1587.944255 -60.652117
72.830837 -1588.775266 -60.345955
74.624070 -1589.606276 -60.039793
76.417304 -1590.437287 -59.733631
78.210537 -1591.268298 -59.427469
80.003771 -1592.099308 -59.121307
81.797004 -1592.930319 -58.815146
83.590238 -1593.761330 -58.508984
85.383471 -1594.592340 -58.202822
87.176704 -1595.423351 -57.896660
88.969938 -1596.254361 -57.590498
90.763171 -1597.085372 -57.284337
92.556405 -1597.916383 -56.978175
94.349638 -1598.747393 -56.672013
96.142872 -1599.578404 -56.365851
97.936105 -1600.409415 -56.059689
99.729339 -1601.240425 -55.753528
101.522572 -1602.071436 -55.447366
103.315806 -1602.902447 -55.141204
105.109039 -1603.733457 -54.835042
106.902273 -1604.564468 -54.528880
108.695506 -1605.395478 -54.222718
110.488740 -1606.226489 -53.916557
112.281973 -1607.057500 -53.610395
114.075207 -1607.888510 -53.304233
115.868440 -1608.719521 -52.998071
117.661673 -1609.550532 -52.691909
119.454907 -1610.381542 -52.385748
121.248140 -1611.212553 -52.079586
123.041374 -1612.043563 -51.773424
124.834607 -1612.874574 -51.467262
126.627841 -1613.705585 -51.161100
128.421074 -1614.536595 -50.854939
130.214308 -1615.367606 -50.548777
132.007541 -1616.198617 -50.242615
133.800775 -1617.029627 -49.936453
135.594008 -1617.860638 -49.630291
137.387242 -1618.691649 -49.324129
139.180475 -1619.522659 -49.017968
140.973709 -1620.353670 -48.711806
142.766942 -1621.184680 -48.405644
144.560175 -1622.015691 -48.099482
146.353409 -1622.846702 -47.793320
148.146642 -1623.677712 -47.487159
149.939876 -1624.508723 -47.180997
151.733109 -1625.339734 -46.874835
153.526343 -1626.170744 -46.568673
155.319576 -1627.001755 -46.262511
157.112810 -1627.832766 -45.956350
158.906043 -1628.663776 -45.650188
160.699277 -1629.494787 -45.344026
162.492510 -1630.325797 -45.037864
164.285744 -1631.156808 -44.731702
166.078977 -1631.987819 -44.425540
167.872211 -1632.818829 -44.119379
169.665444 -1633.649840 -43.813217
171.458678 -1634.480851 -43.507055
173.251911 -1635.311861 -43.200893
175.045144 -1636.142872 -42.894731
176.838378 -1636.973882 -42.588570
178.631611 -1637.804893 -42.282408
180.424845 -1638.635904 -41.976246
182.218078 -1639.466914 -41.670084
184.011312 -1640.297925 -41.363922
185.804545 -1641.128936 -41.057761
187.597779 -1641.959946 -40.751599
189.391012 -1642.790957 -40.445437
